555

-2.080000,0.900000,-4.570000
-2.070000,0.950000,-4.900000
-2.070000,1.200000,-4.420000
-2.070000,1.280000,-4.770000
-2.030000,0.860000,-5.080000
-2.000000,0.810000,-4.240000
-2.000000,1.280000,-5.040000
-1.960000,0.580000,-4.770000
-1.960000,1.050000,-5.260000
-1.960000,1.560000,-4.670000
-1.890000,1.330000,-5.250000
-1.860000,1.400000,-3.900000
-1.830000,0.370000,-3.590000
-1.830000,0.600000,-5.200000
-1.820000,0.170000,-4.060000
-1.790000,-1.210000,-5.070000
-1.790000,0.500000,-4.150000
-1.790000,1.800000,-4.160000
-1.770000,-0.490000,-3.890000
-1.760000,0.390000,-4.370000
-1.760000,0.800000,-3.760000
-1.750000,-1.510000,-4.920000
-1.750000,-0.290000,-3.190000
-1.750000,0.620000,-3.070000
-1.730000,-1.150000,-4.550000
-1.730000,-0.900000,-4.790000
-1.710000,-0.880000,-5.260000
-1.710000,1.010000,-3.630000
-1.710000,1.310000,-5.630000
-1.710000,1.790000,-4.870000
-1.690000,-1.470000,-4.460000
-1.690000,0.710000,-5.460000
-1.680000,-0.100000,-4.680000
-1.680000,0.290000,-4.650000
-1.670000,1.960000,-4.610000
-1.650000,-1.840000,-4.810000
-1.650000,1.290000,-3.370000
-1.640000,-1.470000,-5.340000
-1.630000,1.540000,-3.560000
-1.620000,-1.060000,-3.760000
-1.620000,-0.600000,-5.050000
-1.600000,-0.070000,-2.640000
-1.600000,1.200000,-2.960000
-1.600000,1.640000,-5.190000
-1.590000,-1.870000,-4.740000
-1.590000,-1.000000,-4.290000
-1.590000,-0.860000,-5.530000
-1.570000,-0.720000,-4.610000
-1.550000,0.210000,-5.040000
-1.540000,-0.800000,-2.850000
-1.530000,-1.780000,-5.220000
-1.530000,-0.440000,-4.900000
-1.520000,-1.430000,-5.650000
-1.480000,-1.840000,-4.290000
-1.470000,1.910000,-3.530000
-1.460000,-1.210000,-3.030000
-1.460000,-1.100000,-5.920000
-1.450000,1.830000,-5.580000
-1.450000,2.160000,-3.990000
-1.430000,-1.470000,-4.020000
-1.430000,-0.260000,-5.190000
-1.410000,0.960000,-2.400000
-1.380000,-0.480000,-5.240000
-1.370000,1.320000,-6.060000
-1.360000,0.100000,-2.220000
-1.360000,1.610000,-6.050000
-1.350000,-2.170000,-4.630000
-1.340000,1.310000,-6.490000
-1.320000,0.390000,-5.350000
-1.310000,-2.140000,-5.080000
-1.310000,0.640000,-5.660000
-1.300000,-1.800000,-3.530000
-1.280000,2.230000,-4.630000
-1.250000,-1.730000,-5.790000
-1.250000,-0.890000,-5.940000
-1.240000,-0.840000,-2.290000
-1.240000,0.940000,-6.040000
-1.230000,-2.160000,-4.220000
-1.230000,0.860000,-6.480000
-1.220000,-1.600000,-6.040000
-1.210000,1.930000,-2.820000
-1.210000,2.300000,-3.490000
-1.190000,1.900000,-5.080000
-1.180000,1.950000,-5.990000
-1.170000,-1.300000,-6.160000
-1.160000,2.510000,-3.990000
-1.140000,1.750000,-6.530000
-1.090000,-0.450000,-5.630000
-1.080000,-1.840000,-5.920000
-1.050000,-1.870000,-5.490000
-1.050000,-1.580000,-2.520000
-1.010000,0.050000,-5.770000
-1.000000,-1.740000,-6.410000
-1.000000,1.310000,-2.050000
-0.990000,-2.370000,-4.910000
-0.990000,-1.730000,-6.440000
-0.990000,0.220000,-1.800000
-0.940000,-1.430000,-6.470000
-0.940000,2.790000,-4.980000
-0.930000,1.040000,-1.870000
-0.900000,0.630000,-5.850000
-0.900000,2.100000,-5.500000
-0.900000,2.690000,-3.470000
-0.890000,-2.120000,-6.120000
-0.870000,2.140000,-6.360000
-0.860000,-0.940000,-6.190000
-0.840000,-2.390000,-3.420000
-0.810000,-0.220000,-5.920000
-0.810000,3.140000,-4.530000
-0.780000,-2.370000,-5.000000
-0.780000,-2.180000,-2.880000
-0.770000,-2.180000,-6.360000
-0.760000,-2.550000,-4.130000
-0.750000,-1.870000,-2.430000
-0.750000,-1.490000,-2.120000
-0.740000,-0.470000,-1.690000
-0.730000,1.900000,-2.170000
-0.720000,-1.130000,-6.420000
-0.710000,-0.890000,-1.810000
-0.710000,2.210000,-2.380000
-0.700000,-0.620000,-5.990000
-0.680000,0.510000,-6.410000
-0.670000,0.570000,-1.620000
-0.610000,-2.510000,-4.830000
-0.600000,2.700000,-2.930000
-0.570000,-2.400000,-5.040000
-0.570000,3.320000,-4.150000
-0.560000,3.300000,-5.330000
-0.560000,3.600000,-4.870000
-0.520000,-2.360000,-6.070000
-0.520000,-2.050000,-5.470000
-0.480000,0.280000,-1.500000
-0.470000,2.940000,-5.620000
-0.460000,0.280000,-6.160000
-0.430000,-0.010000,-6.110000
-0.430000,3.110000,-3.460000
-0.420000,-2.680000,-3.340000
-0.400000,-2.080000,-5.670000
-0.400000,-0.920000,-6.350000
-0.390000,-0.650000,-6.100000
-0.380000,2.190000,-5.980000
-0.360000,-2.630000,-5.140000
-0.350000,-2.470000,-6.260000
-0.350000,-1.800000,-2.060000
-0.340000,1.480000,-0.950000
-0.340000,1.730000,-1.750000
-0.320000,-2.870000,-4.060000
-0.300000,3.840000,-4.490000
-0.290000,2.430000,-1.420000
-0.290000,3.410000,-3.820000
-0.270000,0.190000,-0.840000
-0.260000,4.270000,-5.350000
-0.250000,5.250000,-3.630000
-0.240000,5.550000,-3.600000
-0.230000,0.330000,-1.330000
-0.230000,2.280000,-0.910000
-0.230000,3.250000,-2.420000
-0.230000,4.360000,-4.720000
-0.230000,5.150000,-3.850000
-0.230000,5.170000,-4.530000
-0.230000,5.490000,-4.100000
-0.220000,1.120000,-1.470000
-0.220000,2.280000,-0.910000
-0.210000,-0.160000,-1.350000
-0.200000,4.870000,-5.040000
-0.190000,2.900000,-2.780000
-0.180000,2.490000,-2.250000
-0.180000,4.930000,-4.240000
-0.170000,2.300000,-2.080000
-0.170000,4.730000,-4.480000
-0.160000,-2.260000,-2.400000
-0.160000,1.510000,-0.820000
-0.160000,2.510000,-1.350000
-0.150000,0.090000,-0.160000
-0.150000,0.740000,-1.360000
-0.140000,-3.000000,-4.780000
-0.130000,0.590000,-0.510000
-0.120000,3.550000,-2.080000
-0.110000,3.060000,-1.880000
-0.110000,3.550000,-2.080000
-0.100000,3.060000,-1.880000
-0.100000,5.510000,-3.160000
-0.090000,-2.680000,-5.520000
-0.090000,5.370000,-4.660000
-0.080000,5.370000,-3.180000
-0.070000,4.170000,-4.470000
-0.060000,2.050000,-6.040000
-0.050000,3.660000,-2.490000
-0.040000,-3.070000,-5.080000
-0.040000,2.930000,-5.870000
-0.040000,3.230000,-3.270000
-0.040000,3.660000,-2.490000
-0.040000,5.270000,-3.330000
-0.030000,5.680000,-3.580000
-0.020000,-2.470000,-5.920000
-0.020000,-0.840000,-1.430000
-0.020000,4.540000,-5.540000
0.000000,-1.210000,-1.540000
0.000000,1.120000,-1.390000
0.000000,2.380000,-2.080000
0.000000,2.460000,-1.360000
0.000000,2.520000,-2.170000
0.010000,0.810000,-1.340000
0.010000,2.380000,-2.080000
0.010000,3.620000,-2.770000
0.010000,3.830000,-5.760000
0.010000,4.660000,-4.300000
0.010000,4.860000,-4.060000
0.020000,2.520000,-2.170000
0.020000,3.620000,-2.770000
0.020000,4.050000,-3.500000
0.030000,3.430000,-3.560000
0.030000,3.670000,-3.890000
0.040000,5.110000,-3.650000
0.050000,-0.720000,-0.760000
0.050000,1.520000,-0.870000
0.050000,4.930000,-5.340000
0.050000,5.110000,-3.650000
0.080000,4.150000,-3.360000
0.090000,-1.440000,-1.090000
0.090000,3.870000,-3.270000
0.090000,4.150000,-3.360000
0.090000,4.430000,-4.380000
0.100000,-3.080000,-3.980000
0.100000,3.870000,-3.270000
0.100000,4.000000,-4.190000
0.100000,5.150000,-5.190000
0.110000,5.660000,-4.260000
0.120000,-3.050000,-5.420000
0.120000,4.230000,-3.600000
0.130000,-1.800000,-1.770000
0.130000,4.230000,-3.600000
0.140000,4.870000,-4.010000
0.180000,-2.520000,-2.560000
0.180000,-1.390000,-1.050000
0.180000,2.340000,-2.010000
0.180000,3.290000,-2.340000
0.180000,3.450000,-3.490000
0.180000,4.530000,-4.020000
0.190000,-0.850000,-1.340000
0.190000,0.780000,-1.290000
0.190000,5.590000,-3.510000
0.200000,-3.350000,-4.870000
0.200000,0.240000,-0.740000
0.210000,4.070000,-3.460000
0.210000,5.530000,-4.690000
0.220000,1.170000,-1.380000
0.220000,2.530000,-2.170000
0.230000,-1.090000,-1.450000
0.230000,4.120000,-4.060000
0.250000,-2.450000,-6.110000
0.250000,-2.120000,-0.990000
0.250000,2.300000,-5.990000
0.250000,4.330000,-4.290000
0.260000,4.330000,-4.290000
0.270000,-2.140000,-2.070000
0.270000,5.300000,-3.520000
0.280000,4.890000,-4.010000
0.300000,-1.420000,-1.050000
0.310000,1.800000,-1.620000
0.330000,0.390000,-1.210000
0.340000,-3.530000,-5.030000
0.340000,3.270000,-3.190000
0.350000,2.960000,-2.670000
0.350000,3.460000,-3.490000
0.360000,5.210000,-5.270000
0.360000,5.210000,-3.730000
0.380000,-2.970000,-3.260000
0.380000,-2.300000,-2.240000
0.390000,-2.490000,-5.870000
0.390000,-2.440000,-1.660000
0.390000,5.550000,-3.970000
0.400000,-2.770000,-2.820000
0.400000,-2.450000,-2.420000
0.410000,-0.800000,-1.340000
0.410000,-0.100000,-1.220000
0.410000,4.700000,-4.220000
0.420000,4.030000,-4.130000
0.420000,4.460000,-4.310000
0.430000,-2.420000,-1.740000
0.430000,3.710000,-3.810000
0.440000,-2.440000,-1.650000
0.450000,-3.130000,-3.650000
0.470000,-3.700000,-4.840000
0.470000,-3.390000,-4.290000
0.470000,4.780000,-5.600000
0.480000,-3.240000,-3.950000
0.500000,5.430000,-4.540000
0.510000,-1.160000,-1.440000
0.510000,5.000000,-4.100000
0.520000,-3.160000,-2.250000
0.520000,-2.300000,-2.230000
0.520000,-2.280000,-5.940000
0.530000,-2.940000,-5.740000
0.560000,-2.830000,-2.160000
0.560000,-2.440000,-2.360000
0.580000,5.200000,-5.090000
0.590000,-3.010000,-3.260000
0.590000,-1.750000,-1.680000
0.600000,-3.210000,-2.180000
0.620000,-4.030000,-4.650000
0.620000,-3.800000,-5.210000
0.620000,5.260000,-4.360000
0.630000,-3.330000,-5.620000
0.630000,0.400000,-1.270000
0.630000,4.810000,-4.320000
0.640000,-3.680000,-4.380000
0.650000,-3.100000,-3.450000
0.650000,-2.270000,-2.180000
0.650000,-2.100000,-1.990000
0.650000,3.640000,-5.880000
0.650000,4.240000,-4.320000
0.660000,-3.180000,-3.610000
0.690000,-4.340000,-5.020000
0.700000,-4.340000,-4.740000
0.700000,-3.140000,-2.210000
0.710000,-3.460000,-2.580000
0.730000,-4.060000,-5.190000
0.730000,-2.420000,-2.350000
0.730000,2.880000,-5.900000
0.730000,5.000000,-5.200000
0.740000,3.520000,-3.610000
0.770000,-4.040000,-4.420000
0.790000,-3.380000,-3.920000
0.790000,0.720000,-1.320000
0.790000,2.060000,-1.860000
0.790000,3.240000,-3.210000
0.800000,-3.010000,-3.230000
0.800000,2.370000,-2.070000
0.810000,2.850000,-2.640000
0.820000,-4.530000,-4.780000
0.830000,-3.090000,-3.340000
0.850000,4.470000,-4.500000
0.850000,4.980000,-4.830000
0.860000,-4.390000,-4.450000
0.890000,-3.530000,-3.410000
0.900000,-4.560000,-5.260000
0.930000,3.970000,-4.240000
0.940000,4.640000,-5.340000
0.950000,-3.510000,-3.720000
0.950000,-2.710000,-2.710000
0.970000,-3.910000,-5.390000
0.980000,-4.770000,-4.850000
0.990000,-4.880000,-5.120000
0.990000,-3.460000,-3.950000
1.000000,-2.970000,-3.180000
1.000000,-2.430000,-2.390000
1.030000,-3.060000,-3.370000
1.030000,1.240000,-1.470000
1.050000,-3.690000,-4.110000
1.060000,-4.720000,-4.660000
1.080000,-0.280000,-1.320000
1.090000,-3.970000,-4.190000
1.090000,-3.420000,-5.620000
1.100000,-3.130000,-3.520000
1.110000,1.530000,-1.620000
1.120000,-5.010000,-5.260000
1.140000,-1.650000,-1.760000
1.140000,3.500000,-3.800000
1.140000,4.410000,-5.060000
1.150000,-4.850000,-4.780000
1.150000,-4.320000,-4.290000
1.150000,-3.340000,-3.850000
1.150000,3.950000,-5.530000
1.180000,-2.890000,-3.100000
1.190000,-2.120000,-2.120000
1.190000,-1.810000,-5.790000
1.190000,-0.690000,-1.420000
1.200000,-4.860000,-5.350000
1.200000,-4.540000,-4.420000
1.220000,0.450000,-1.350000
1.240000,-5.110000,-5.030000
1.260000,-2.580000,-5.730000
1.280000,-5.170000,-5.220000
1.290000,-4.840000,-4.730000
1.300000,-3.080000,-5.670000
1.300000,-3.040000,-3.480000
1.300000,2.920000,-3.020000
1.320000,2.410000,-5.770000
1.330000,-3.480000,-5.600000
1.340000,-3.880000,-5.430000
1.360000,3.800000,-4.480000
1.370000,-5.100000,-4.980000
1.370000,-4.270000,-5.400000
1.410000,-4.680000,-5.380000
1.410000,-3.140000,-3.760000
1.410000,3.080000,-5.570000
1.430000,-5.200000,-5.240000
1.450000,-4.820000,-4.720000
1.450000,-4.680000,-4.580000
1.460000,-1.260000,-1.670000
1.470000,2.210000,-2.270000
1.490000,-4.320000,-4.320000
1.490000,-3.970000,-4.270000
1.510000,-5.080000,-4.980000
1.520000,-3.590000,-4.200000
1.540000,3.380000,-4.050000
1.550000,-3.370000,-5.530000
1.560000,-5.140000,-5.160000
1.580000,-3.270000,-4.060000
1.600000,3.520000,-4.890000
1.610000,-4.700000,-4.720000
1.620000,-4.820000,-5.260000
1.660000,-3.840000,-5.250000
1.660000,-1.620000,-1.940000
1.660000,2.600000,-2.900000
1.670000,2.230000,-5.690000
1.680000,-4.440000,-4.600000
1.680000,1.280000,-1.770000
1.690000,-4.950000,-5.140000
1.700000,3.160000,-5.180000
1.710000,-3.920000,-4.430000
1.730000,-4.800000,-4.970000
1.730000,-2.910000,-3.650000
1.740000,-4.230000,-4.530000
1.740000,0.420000,-1.590000
1.770000,2.810000,-3.390000
1.800000,-4.470000,-5.080000
1.830000,-3.950000,-4.970000
1.840000,-0.520000,-1.660000
1.850000,-4.220000,-4.780000
1.860000,-3.560000,-4.560000
1.870000,-2.440000,-2.870000
1.880000,-3.670000,-4.950000
1.900000,-1.270000,-1.920000
1.900000,2.430000,-5.510000
1.900000,3.080000,-4.400000
1.920000,-1.900000,-2.330000
1.940000,-3.190000,-5.350000
1.960000,-2.130000,-5.650000
1.990000,2.270000,-2.820000
2.000000,-2.790000,-5.440000
2.010000,-3.360000,-4.690000
2.020000,1.570000,-2.220000
2.040000,-3.160000,-4.490000
2.090000,-2.310000,-5.520000
2.100000,-2.620000,-3.560000
2.100000,2.530000,-3.260000
2.150000,0.320000,-1.870000
2.180000,2.590000,-3.920000
2.200000,2.420000,-4.870000
2.210000,1.690000,-2.580000
2.220000,-2.070000,-2.790000
2.220000,1.940000,-2.770000
2.240000,-2.750000,-4.290000
2.270000,-2.830000,-4.980000
2.280000,-2.830000,-4.610000
2.300000,-2.240000,-5.690000
2.320000,-0.400000,-2.060000
2.320000,1.040000,-2.240000
2.340000,2.270000,-4.360000
2.400000,-0.810000,-2.240000
2.420000,-2.420000,-5.010000
2.420000,0.580000,-5.570000
2.420000,1.440000,-2.780000
2.430000,0.290000,-5.520000
2.460000,-2.220000,-3.470000
2.470000,-2.210000,-5.410000
2.500000,2.490000,-5.670000
2.510000,-2.330000,-4.550000
2.520000,-0.350000,-5.500000
2.540000,0.150000,-2.310000
2.540000,2.250000,-3.280000
2.560000,1.250000,-2.880000
2.570000,-1.400000,-2.740000
2.580000,1.860000,-2.990000
2.580000,2.400000,-3.740000
2.590000,-2.180000,-4.180000
2.610000,-2.070000,-4.390000
2.630000,1.000000,-5.130000
2.640000,-1.780000,-5.050000
2.640000,0.830000,-2.680000
2.670000,-1.720000,-4.820000
2.670000,0.860000,-5.730000
2.670000,2.350000,-5.200000
2.680000,-0.600000,-5.720000
2.690000,-1.700000,-5.020000
2.740000,0.150000,-5.190000
2.750000,-0.260000,-5.280000
2.750000,2.250000,-3.960000
2.780000,-2.000000,-4.270000
2.780000,2.270000,-4.720000
2.790000,0.970000,-3.210000
2.800000,-0.600000,-2.860000
2.800000,2.100000,-4.290000
2.810000,-1.030000,-3.150000
2.810000,0.450000,-4.990000
2.840000,-1.740000,-3.390000
2.850000,0.650000,-3.100000
2.860000,0.820000,-4.490000
2.870000,-0.010000,-2.940000
2.870000,0.870000,-3.420000
2.890000,2.170000,-5.710000
2.900000,-2.130000,-5.600000
2.920000,1.080000,-4.800000
2.930000,-1.960000,-4.110000
2.930000,-0.030000,-4.810000
2.930000,0.770000,-3.710000
2.930000,2.050000,-5.170000
2.940000,2.070000,-3.670000
2.950000,1.370000,-5.180000
2.960000,-2.000000,-5.360000
2.960000,-0.530000,-3.360000
2.960000,1.320000,-3.230000
2.980000,0.680000,-4.110000
3.000000,1.770000,-5.170000
3.010000,-0.250000,-3.670000
3.010000,1.730000,-3.380000
3.020000,0.390000,-3.720000
3.030000,-1.370000,-3.370000
3.030000,-0.740000,-5.650000
3.030000,-0.540000,-5.390000
3.030000,0.200000,-4.280000
3.040000,-0.020000,-4.340000
3.040000,0.030000,-3.970000
3.110000,-1.710000,-3.720000
3.120000,-1.440000,-4.640000
3.130000,1.310000,-5.590000
3.130000,1.820000,-3.710000
3.140000,1.440000,-3.500000
3.140000,1.770000,-5.570000
3.140000,1.810000,-4.640000
3.150000,1.850000,-4.220000
3.170000,1.110000,-3.720000
3.170000,1.210000,-4.470000
3.170000,1.820000,-3.980000
3.210000,-0.960000,-3.460000
3.210000,-0.100000,-4.060000
3.220000,-0.640000,-3.540000
3.220000,1.120000,-4.170000
3.240000,-1.670000,-4.150000
3.250000,1.500000,-3.810000
3.260000,-1.760000,-5.540000
3.260000,-1.690000,-5.270000
3.270000,-0.380000,-3.770000
3.270000,1.590000,-4.190000
3.280000,-0.420000,-5.010000
3.300000,-1.390000,-5.020000
3.300000,1.410000,-3.990000
3.310000,-1.360000,-3.740000
3.310000,-0.990000,-5.600000
3.370000,-0.830000,-5.230000
3.380000,-1.320000,-3.780000
3.380000,-1.250000,-4.840000
3.400000,-1.280000,-5.540000
3.420000,-1.300000,-5.460000
3.420000,-0.340000,-4.500000
3.430000,-1.270000,-4.210000
3.430000,-1.120000,-5.090000
3.430000,-0.350000,-4.210000
3.450000,-0.970000,-3.860000
3.490000,-0.660000,-3.990000
3.500000,-0.590000,-4.910000
3.510000,-0.940000,-4.290000
3.510000,-0.910000,-4.620000

1025

74,84,105
422,376,364
422,364,340
422,340,346
422,346,365
422,365,427
422,427,442
422,442,456
422,456,436
422,436,413
422,413,376
464,456,442
464,442,427
464,427,424
464,424,451
464,451,483
464,483,485
464,485,487
464,487,456
404,365,357
404,357,390
404,390,424
404,424,427
404,427,365
419,424,390
419,390,367
419,367,351
419,351,415
419,415,438
419,438,448
419,448,424
370,351,304
370,304,324
370,324,348
370,348,408
370,408,415
370,415,351
449,438,408
449,408,433
449,433,441
449,441,454
449,454,463
449,463,471
449,471,461
449,461,438
490,451,461
490,461,488
490,488,508
490,508,506
490,506,502
490,502,483
490,483,451
526,509,485
526,485,502
526,502,528
526,528,550
526,550,542
526,542,515
526,515,509
487,485,509
487,509,515
467,444,456
467,456,487
467,487,515
467,515,480
467,480,459
467,459,444
434,421,399
434,399,444
434,444,446
434,446,445
434,445,432
434,432,421
436,456,444
436,444,413
413,444,399
385,362,376
385,376,413
385,413,399
394,387,382
394,382,374
394,374,388
394,388,401
394,401,412
394,412,409
394,409,398
394,398,387
389,374,369
389,369,392
389,392,407
389,407,401
389,401,388
389,388,374
393,361,352
393,352,395
393,395,411
393,411,392
393,392,361
349,344,395
352,349,395
411,395,421
421,395,399
399,395,344
344,362,399
361,392,369
420,411,418
428,423,432
428,432,445
428,445,431
428,431,372
428,372,397
428,397,423
435,431,445
435,445,452
435,452,470
435,470,457
435,457,447
435,447,429
435,429,366
435,366,372
435,372,431
501,457,470
501,470,537
501,537,533
501,533,532
501,532,493
501,493,447
501,447,457
553,547,550
553,550,551
553,551,549
553,549,546
553,546,554
553,554,516
553,516,547
504,512,508
504,508,497
504,497,523
504,523,529
504,529,489
504,489,496
504,496,512
503,482,463
503,463,454
503,454,465
503,465,507
503,507,519
503,519,523
503,523,491
503,491,482
462,507,465
462,465,443
462,443,430
462,430,437
462,437,466
462,466,499
462,499,507
426,450,439
426,439,416
426,416,396
426,396,381
426,381,400
426,400,410
426,410,440
426,440,450
332,381,337
332,337,311
332,311,278
332,305,333
332,333,338
332,338,359
332,359,381
271,193,227
271,227,245
271,245,287
271,287,302
271,302,289
271,289,266
271,266,256
358,326,321
358,321,277
358,277,337
358,337,381
358,381,396
358,396,416
358,416,377
358,377,326
391,408,355
391,355,325
391,325,328
391,328,329
391,329,377
391,377,405
391,405,430
391,430,443
391,443,441
391,441,433
391,433,408
430,405,437
437,405,416
405,377,416
377,329,326
408,348,355
448,438,461
461,451,448
424,448,451
471,463,482
461,471,488
423,411,421
421,432,423
423,418,411
417,380,383
417,383,384
417,384,402
417,402,409
417,401,407
417,407,414
417,414,420
417,420,418
417,418,403
417,403,380
392,414,407
392,411,414
411,420,414
243,274,214
243,214,173
243,173,176
243,176,240
243,240,260
243,260,275
243,275,274
288,298,258
288,258,234
288,234,248
288,248,239
288,239,274
288,274,367
288,367,390
288,390,357
288,357,298
251,234,258
259,246,215
259,215,162
259,162,200
259,200,235
259,235,325
259,325,355
259,355,348
259,348,246
236,247,178
236,178,177
236,177,191
236,191,209
236,209,262
236,262,263
236,263,247
235,247,329
329,247,263
263,262,329
329,262,326
274,275,351
351,367,274
351,275,304
304,275,260
260,240,304
304,240,324
324,240,246
202,198,240
198,246,240
176,202,240
215,246,198
239,214,274
246,348,324
235,329,328
415,408,438
328,325,235
276,238,232
276,232,257
276,257,289
276,289,305
276,305,332
276,332,278
276,278,238
192,184,256
256,184,181
181,241,256
181,193,241
232,213,257
257,213,266
266,289,257
213,192,256
256,266,213
256,241,271
241,193,271
305,289,302
302,333,305
333,302,296
296,302,287
287,245,296
265,296,245
285,320,296
296,320,333
244,264,220
244,220,218
244,218,229
244,229,249
244,249,277
244,277,280
244,280,264
262,237,264
220,264,237
262,264,326
326,264,280
280,277,321
541,544,548
541,548,554
541,554,552
541,511,510
541,510,540
541,540,544
475,511,460
460,511,478
477,478,496
477,496,486
477,486,469
477,469,453
477,453,455
477,455,460
477,460,478
500,469,494
500,494,524
500,524,505
500,505,520
500,520,517
500,517,469
469,517,473
473,453,469
489,469,486
486,496,489
489,529,524
489,494,469
489,524,494
534,550,528
534,528,502
534,502,506
534,506,514
534,514,527
534,527,549
534,549,551
534,551,550
506,508,514
514,508,512
513,549,527
513,527,514
513,514,512
513,512,496
513,496,546
513,546,549
536,541,552
536,552,546
536,546,496
536,496,478
536,478,511
530,515,539
530,539,550
530,550,547
530,547,516
530,516,472
530,472,468
530,468,495
530,495,515
459,468,472
472,470,459
459,470,452
452,445,459
459,445,446
446,444,459
454,441,443
443,465,454
488,471,463
463,482,488
488,482,491
491,497,508
508,488,491
538,529,523
538,523,531
538,531,525
538,525,535
538,535,529
518,507,499
518,499,525
518,525,531
518,531,507
484,479,450
484,450,481
484,481,521
484,521,522
484,522,525
484,525,479
479,466,450
450,466,439
439,437,416
437,439,466
483,502,485
546,552,554
199,208,247
247,235,199
247,208,178
199,235,200
200,172,199
162,172,200
171,162,215
171,215,198
251,258,298
298,357,309
309,281,251
309,357,365
318,295,291
318,291,308
318,308,365
318,365,346
318,346,340
318,340,315
318,315,294
318,294,295
299,294,315
316,299,315
316,315,340
345,316,340
345,340,364
345,364,376
345,376,347
345,347,327
345,327,316
331,327,347
362,385,399
362,344,339
362,339,335
362,335,354
362,354,376
362,385,399
331,347,335
335,347,354
347,376,354
265,285,296
363,400,359
363,359,338
363,338,285
363,285,310
363,310,319
363,319,386
363,386,410
363,410,400
400,381,359
338,333,320
285,338,320
474,440,425
474,425,458
474,458,492
474,492,520
474,520,498
474,498,481
474,481,440
450,440,481
481,498,521
505,498,520
521,498,505
529,535,524
535,521,524
535,522,521
535,525,522
491,523,497
524,521,505
519,531,523
507,531,519
499,466,479
479,525,499
406,378,425
440,410,425
425,410,386
425,386,319
470,472,516
516,537,476
537,516,543
543,516,554
554,548,543
543,548,537
537,548,545
545,533,537
532,533,544
251,298,309
281,309,308
308,291,279
279,251,281
281,308,279
309,365,308
384,387,398
398,409,402
402,384,398
401,417,412
412,417,409
277,253,278
277,278,311
277,311,337
249,253,277
238,278,253
511,475,510
418,423,403
403,423,397
403,397,379
380,403,379
379,397,375
375,397,372
372,353,375
375,353,379
379,341,380
379,353,341
353,301,341
341,301,317
117,138,105
254,222,238
225,254,249
147,185,225
185,222,225
222,254,225
356,336,343
343,336,342
373,384,368
368,356,373
373,387,384
268,170,255
279,268,270
270,251,279
279,291,268
268,255,270
255,230,251
92,103,111
88,103,92
92,79,88
88,79,73
73,79,52
52,89,73
73,89,88
137,88,89
89,130,137
319,189,140
189,132,140
140,132,101
140,252,186
9,6,29
29,34,9
0,1,2
7,1,0
63,28,31
33,7,19
10,6,8
28,10,8
31,28,8
31,8,13
63,65,28
67,65,63
28,65,57
57,101,82
101,57,83
57,65,83
65,67,83
67,86,83
86,104,83
104,140,83
140,101,83
216,196,285
216,164,196
151,128,127
127,132,205
132,189,205
189,319,205
319,310,205
310,285,205
285,196,205
196,151,205
151,127,205
226,285,265
312,282,307
312,307,335
335,307,331
284,286,323
282,312,323
312,335,323
335,339,323
339,344,323
284,286,323
307,327,331
316,327,297
327,307,297
307,282,297
282,267,297
267,272,297
272,316,297
272,290,316
290,299,316
290,294,299
295,294,273
294,290,273
290,272,273
272,233,273
233,170,273
170,268,273
268,291,273
291,295,273
170,143,255
251,270,255
255,143,230
230,219,251
198,144,171
144,155,171
148,172,155
203,172,148
148,168,203
180,201,166
203,168,166
166,201,203
52,56,46
59,45,39
34,72,58
85,58,72
72,34,82
82,34,29
29,6,43
6,10,43
10,28,43
28,57,43
57,82,43
82,29,43
2,1,3
1,6,3
6,9,3
9,2,3
13,8,4
8,6,4
6,1,4
1,7,4
7,13,4
19,14,32
32,33,19
19,16,14
14,16,20
20,12,14
27,11,38
38,36,27
141,175,188
188,228,141
141,228,182
182,137,141
141,137,130
130,125,141
66,94,69
94,125,69
125,130,69
130,89,69
89,50,69
50,21,69
21,44,69
44,66,69
105,120,74
120,87,74
87,46,74
46,56,74
56,84,74
26,46,62
46,87,62
87,60,62
60,51,62
51,40,62
40,26,62
60,32,51
51,32,47
21,15,25
15,26,25
26,40,25
40,51,25
51,47,25
47,45,25
45,24,25
24,21,25
70,31,68
100,70,68
31,13,68
68,87,91
91,100,68
100,133,121
121,78,100
100,78,76
78,67,76
67,63,76
63,31,76
31,70,76
70,100,76
120,139,107
139,134,107
134,133,107
133,100,107
100,91,107
91,87,107
87,120,107
120,105,139
139,105,138
92,97,84
97,117,84
117,105,84
56,52,84
52,79,84
79,92,84
149,225,212
212,211,135
135,211,190
237,211,224
211,237,190
211,212,210
212,225,210
225,249,210
249,231,210
231,221,210
221,224,210
224,211,210
164,216,226
226,216,285
245,226,265
226,245,183
183,159,226
226,159,164
169,164,159
159,167,169
160,193,153
160,153,152
217,158,152
152,192,217
207,167,158
158,217,207
207,217,232
153,193,181
152,153,181
181,184,152
152,184,192
238,222,206
222,157,206
157,169,206
169,167,206
167,207,206
207,232,206
232,238,206
168,116,119
41,61,64
119,124,168
122,99,161
195,214,239
198,161,144
174,202,176
174,161,198
174,198,202
161,174,122
122,174,131
131,174,154
154,163,131
131,163,115
195,118,115
115,163,195
135,190,124
124,190,165
165,166,124
124,166,168
166,165,156
165,190,156
190,204,156
204,187,156
187,179,156
179,180,156
180,166,156
161,99,145
99,93,145
93,116,145
116,168,145
168,148,145
148,155,145
155,144,145
144,161,145
219,234,251
230,143,197
143,114,197
114,118,197
118,195,197
195,239,197
239,248,197
248,234,197
234,219,197
219,230,197
195,163,150
163,154,150
154,174,150
174,176,150
176,173,150
173,214,150
214,195,150
314,313,300
314,300,334
330,314,334
380,341,336
341,317,336
317,313,336
313,314,336
314,330,336
330,342,336
356,368,336
368,384,336
384,383,336
383,380,336
300,317,301
301,261,283
283,300,301
14,12,22
16,20,12
55,49,90
49,55,22
22,41,49
93,99,61
135,124,102
85,102,81
85,81,58
58,81,54
61,42,80
42,36,80
36,38,80
38,54,80
54,81,80
81,102,80
102,124,80
124,119,80
119,116,80
116,93,80
93,61,80
135,102,126
102,85,126
85,108,126
108,128,126
128,147,126
147,225,126
225,149,126
149,135,126
152,158,160
158,167,160
167,159,160
159,183,160
183,245,160
245,227,160
227,193,160
128,151,157
151,196,157
196,164,157
164,169,157
222,185,157
185,147,157
147,128,157
82,101,98
101,132,98
132,127,98
127,128,98
128,108,98
108,85,98
85,72,98
72,82,98
2,9,17
9,34,17
34,58,17
58,54,17
54,38,17
38,11,17
11,2,17
16,19,5
19,7,5
7,0,5
0,2,5
2,11,5
11,27,5
27,20,5
20,16,5
60,87,48
87,68,48
68,13,48
13,7,48
7,33,48
33,32,48
32,60,48
50,89,37
89,52,37
52,46,37
46,26,37
26,15,37
15,21,37
21,50,37
194,250,129
250,142,129
142,111,129
111,103,129
103,88,129
88,137,129
137,194,129
293,372,269
372,366,269
366,292,269
292,250,269
250,194,269
194,137,269
137,182,269
182,228,269
228,293,269
301,353,303
353,372,303
372,293,303
293,228,303
228,261,303
261,301,303
317,300,313
369,334,361
284,323,344
344,306,284
284,306,283
283,306,300
306,349,352
306,344,349
361,334,322
334,300,322
300,306,322
306,352,322
352,361,322
374,360,350
360,342,350
342,330,350
330,334,350
334,369,350
369,374,350
387,373,371
373,356,371
356,343,371
343,342,371
342,360,371
360,374,371
374,382,371
382,387,371
284,223,286
223,282,286
282,323,286
284,175,223
223,175,146
175,112,146
283,261,242
261,228,242
228,188,242
188,175,242
175,284,242
284,283,242
175,141,123
141,109,123
109,66,123
66,77,123
77,112,123
112,175,123
66,53,77
53,59,77
53,66,30
66,35,30
35,21,30
21,24,30
24,45,30
45,59,30
59,53,30
55,39,18
39,45,18
45,47,18
47,32,18
32,14,18
14,22,18
22,55,18
41,22,23
22,12,23
12,20,23
20,27,23
27,36,23
36,42,23
42,61,23
61,41,23
115,64,96
64,61,96
61,99,96
99,122,96
122,131,96
131,115,96
90,49,75
49,41,75
41,64,75
64,115,75
115,118,75
118,114,75
114,90,75
170,110,113
110,90,113
90,114,113
114,143,113
143,170,113
112,77,71
77,59,71
59,39,71
39,55,71
55,90,71
90,110,71
110,106,71
106,112,71
282,223,136
223,146,136
146,112,136
112,106,136
106,110,136
110,170,136
170,233,136
233,272,136
272,267,136
267,282,136
